-15.87806416,-111.6251755,43.00844193,1,1
-11.24587727,-87.82774353,43.17910767,1,1
-15.86478901,-162.8578033,43.1246109,1,1
-3.16144371,-144.5289612,43.9907074,1,1
-17.05887794,-182.3029785,43.87150955,1,1
-8.673640251,-233.265564,44.63751221,1,1
0.62822485,-173.0177002,45.44124222,1,1
-6.354716778,-200.4067993,45.49394226,1,1
-16.52269363,-171.5967255,44.38037491,1,1
-3.536519051,-150.8856354,43.48215485,1,1
-18.96239471,-209.5799561,45.44180679,1,1
0.084980011,-115.5361862,43.82907104,1,1
3.646023989,-91.8757019,45.83462143,1,1
-5.319956779,-181.0110779,43.95397568,1,2
-16.78886986,-177.6322479,44.87039948,1,1
-15.54989719,-158.577774,44.43515396,1,1
-23.73958397,-223.3245239,44.56229019,1,1
-11.76420116,-85.33127594,44.32103729,1,1
-13.26131725,-118.8847427,44.78499985,1,1
-17.54125404,-191.1589966,45.32201004,1,5
-19.03652,-210.1477661,45.77810669,1,1
-15.31114864,-151.167923,45.04216766,1,1
-3.8627882,-163.3053741,44.5074501,1,1
-14.8081522,-146.2937622,45.05853271,1,1
-2.757554054,-138.2381287,44.09026337,1,1
-6.759955883,-205.1267548,44.70697784,1,3
-12.00390339,-99.32144928,43.95537567,1,1
-5.554493904,-185.2137146,45.41770935,1,1
-2.485172272,-139.9117584,44.84713745,1,1
-7.803915977,-219.1202698,44.6270752,1,1
-18.61484528,-207.7928467,44.1603241,1,1
-0.235733032,-116.8464508,43.57035065,1,1
-12.17486286,-103.6385574,44.21628189,1,1
-3.894238472,-157.7453003,44.30530167,1,1
-16.16307831,-165.4708099,45.32679749,1,4
-23.28061295,-224.6680298,44.93383408,1,1
-3.844761848,-164.0306091,44.60694122,1,1
-6.220800877,-196.2020721,44.97644424,1,1
-14.25769901,-138.2713928,43.7650795,1,1
-16.48278618,-171.8598175,45.63995361,1,1
-12.46085453,-97.13568878,44.19473267,1,1
1.741520882,-103.0883484,44.62802124,1,1
-14.80589199,-146.4690247,45.86297607,1,1
-2.901463032,-141.5254517,43.29944611,1,3
-3.78410244,-157.6258545,43.64124298,1,3
-5.54198122,-187.1789856,45.46377945,1,1
-11.76804447,-95.7266922,45.56269455,1,1
-7.126335144,-214.2739563,45.25463104,1,1
-17.54683495,-191.8537445,43.64451218,1,1
-16.67326355,-174.7453308,43.66051102,1,1
-23.83864784,-223.3148499,44.83221436,1,1
-2.621040344,-137.0208893,43.52137375,1,1
-16.20611382,-167.752182,44.0786972,1,2
-7.077692032,-209.5495605,44.99272919,1,1
-2.78030777,-136.7014618,45.63096619,1,1
-17.69621658,-193.7475739,44.27325439,1,1
-3.67959404,-153.6876984,45.01086044,1,1
2.472019911,-101.7396545,44.18603897,1,1
-7.288476944,-218.1206512,45.08235931,1,1
-16.14528465,-166.2733612,45.7404213,1,1
-6.691950798,-201.9468384,44.81364441,1,1
-2.505164146,-133.7168732,45.06749725,1,1
-18.27021217,-198.9861603,44.03122711,1,1
-13.45024586,-119.275322,44.60016251,1,1
-18.1882782,-190.1809387,44.81211853,1,1
-22.04131889,-223.8564606,44.13282394,1,1
-3.497332573,-154.5054932,45.93150711,1,1
-17.51446533,-191.4577789,45.31460571,1,1
-18.92378616,-118.5138168,43.18114853,1,1
-16.54693222,-83.44760132,43.98414993,1,5
-12.53019238,-98.15744781,44.57516861,1,1
-3.997717857,-163.0122681,45.51873398,1,1
-12.59019566,-109.9715576,42.8271637,1,1
-12.10052395,-103.1770782,42.81028748,1,4
-3.56242466,-151.7128906,45.30304337,1,1
-5.861475945,-190.2988586,43.95970917,1,1
-13.18377781,-113.0968475,45.32944489,1,1
-17.3173027,-187.7363129,43.53174973,1,1
-3.994158745,-163.9094696,44.55953598,1,5
-11.82216358,-96.57502747,45.1391983,1,1
-5.29064703,-180.1318207,44.87445831,1,1
-13.15538883,-116.4710083,45.49349976,1,1
-17.70956421,-193.9108124,45.22925186,1,1
-4.848022938,-172.1234894,44.84049606,1,1
2.4475739,-98.36624146,44.59294128,1,1
-15.87154675,-133.5332031,45.25603485,1,1
-18.19833755,-121.705246,42.31648254,1,1
-2.70995903,-136.1463776,45.96916962,1,1
-12.04057026,-102.0495758,43.88382339,1,1
-16.18883133,-80.8661499,43.17277527,1,1
-14.47277355,-142.4659882,45.31884766,1,1
0.146220207,-113.781601,45.30334091,1,3
-17.59984016,-192.9822845,43.51562119,1,1
-16.86467934,-178.423233,43.1268425,1,1
2.937633038,-95.01866913,44.2795372,1,1
-11.42537403,-90.88592529,45.52908707,1,1
-15.56490803,-157.7342072,45.80421448,1,1
-18.66497612,-208.1538849,45.12784576,1,1
-11.13569546,-87.57515717,45.7453537,1,1
1.404458046,-106.6392288,44.37284851,1,1
-7.240757942,-213.4965057,44.31521606,1,1
-5.138185978,-177.8119507,45.80707169,1,1
-5.757381916,-187.9177704,44.96035767,1,1
-2.936961174,-145.5415192,45.23828888,1,1
-5.630181789,-186.526062,44.43047333,1,1
-14.4039011,-138.9933319,45.61307907,1,1
-3.936262131,-163.7167358,45.29115295,1,1
-15.39151859,-151.7037659,45.74348831,1,1
0.496907234,-119.8422699,45.46910477,1,1
-7.881287098,-220.561203,44.67153931,1,1
-2.803844929,-139.2894745,44.31632233,1,4
-5.124582767,-174.8564758,45.71337509,1,1
-28.73356247,-226.2780304,45.03952026,1,1
0.296422958,-115.9428864,45.96891022,1,1
-15.31890774,-121.2133255,44.46308517,1,4
-16.36305618,-165.0573883,45.85615158,1,1
-12.01009846,-101.7375031,43.12940598,1,1
-13.04198933,-115.8094711,43.94736099,1,1
-16.23995972,-166.5818481,45.58428955,1,1
-4.911852837,-173.2526398,44.40383148,1,1
-3.406274796,-147.2742462,43.58049393,1,1
-15.64444065,-161.3276672,43.60541916,1,1
-16.53899956,-173.7041321,44.085186,1,1
-17.23501587,-184.8359985,45.50402451,1,1
-5.441368103,-184.8946991,44.44002533,1,1
-16.25172615,-167.2656555,44.34460831,1,1
-18.24226189,-199.7366486,44.12363815,1,1
-4.926490784,-174.6812439,44.28372574,1,1
-6.842899799,-205.4666901,45.36716843,1,1
-22.58991814,-185.7876129,45.29700851,1,1
-6.712634087,-204.056366,44.22134399,1,1
-12.53736973,-118.7163162,42.48376465,1,1
-6.291798115,-195.3251495,45.47263718,1,1
-16.65855789,-174.6873322,44.40155029,1,1
-6.485960007,-198.0583191,45.82479095,1,1
-17.79523659,-185.6393433,45.35475159,1,1
-16.37452888,-171.2181244,44.23077393,1,1
-14.42228031,-142.9658966,43.16728973,1,4
-3.881373405,-163.1986542,45.76158142,1,1
-17.18496704,-104.4722977,44.92733765,1,1
-3.666640282,-154.5517731,44.61896896,1,1
-13.31501675,-118.7990265,44.86111832,1,1
-11.22190952,-89.19467926,42.8520813,1,1
-19.10733414,-216.2769318,45.32437515,1,1
-0.590715885,-118.8280869,43.43164063,1,1
-5.547570229,-175.7938843,45.22360611,1,1
-2.8835783,-140.7328491,44.59045792,1,1
4.398397923,-86.84594727,43.94429779,1,1
6.498281956,-98.01235962,45.13472366,1,1
-15.27885151,-155.025116,44.23580551,1,1
-12.89464283,-114.5142593,42.69327545,1,1
-5.483985901,-186.5446472,45.3431778,1,1
-17.14628983,-183.8756104,44.51794052,1,1
-5.590315819,-186.2226105,44.19124985,1,4
-19.39840317,-96.53121185,43.37248611,1,1
-4.894874096,-173.2870789,45.25046539,1,1
-14.88819599,-148.3791656,45.15926361,1,1
-17.30446434,-186.84198,45.21856308,1,1
-17.97097015,-198.2996216,44.84972763,1,1
-12.56560802,-109.7209854,42.87783813,1,1
-6.729270935,-204.5536804,44.98262024,1,2
-16.48517227,-81.78721619,43.03664398,1,1
-18.92219925,-212.6053314,45.17220306,1,1
-16.27483749,-165.1372375,45.01407623,1,1
-11.98717785,-87.19929504,44.68325424,1,1
-14.5567255,-142.0430603,45.17702866,1,1
1.447266102,-104.7015381,43.44477463,1,1
0.821592808,-108.9846497,43.14105988,1,1
-15.65653515,-152.2007599,45.00498581,1,4
-5.711200237,-189.6235809,44.86170578,1,1
-15.6082201,-133.8471832,42.9569931,1,1
1.238987923,-106.0354462,44.46220779,1,1
-17.03205681,-176.5949554,45.81371689,1,1
-3.90645504,-157.6133423,45.08454514,1,1
-5.841268063,-189.4365234,43.9649086,1,1
-15.78080463,-161.9608002,45.96968079,1,1
-14.54970837,-143.1846771,44.23335266,1,1
-13.68340015,-116.3707504,43.67622757,1,1
-21.80204582,-210.3718872,44.11415482,1,1
-19.4200573,-221.0150146,44.17533875,1,1
-14.41971874,-142.3216553,43.32640839,1,1
-14.5262537,-141.3812103,45.32126236,1,1
-5.708488941,-196.5604401,45.89390564,1,1
-15.35748386,-154.4131927,45.81140137,1,1
-0.185599804,-116.0621796,45.12762451,1,3
-16.88299751,-177.8540497,44.9229126,1,1
-17.94900131,-144.3920746,43.88913727,1,1
-4.754613876,-170.8761902,44.02528,1,1
-15.51437092,-158.2459259,43.50252533,1,1
-16.1173172,-165.2458496,45.88846588,1,1
-18.30679321,-192.2947693,45.39391327,1,1
-16.08296204,-166.1000671,45.34580231,1,1
-17.83581352,-195.4219208,45.4744072,1,1
-18.34779549,-194.4546967,45.75308609,1,1
-13.02775669,-115.3703156,45.88417053,1,1
-17.21825218,-180.0020905,44.93196106,1,1
-2.947618008,-139.0149994,45.26127243,1,1
-5.671313763,-191.398056,45.7167778,1,1
-11.89751911,-100.0023575,44.72020721,1,2
-4.39056015,-168.6565247,45.09634399,1,1
4.730803013,-84.56326294,43.9879837,1,1
-0.534629822,-118.6573029,43.51440811,1,1
-17.18928719,-184.2373505,44.60573578,1,1
4.176487923,-87.1646347,44.98826218,1,1
-12.89933491,-108.4578629,45.35882187,1,1
-7.247723103,-218.3469086,45.77708054,1,1
-16.23032761,-163.8583832,45.58876419,1,1
-2.860304832,-144.2670136,45.82735062,1,1
-5.284718037,-184.7272339,45.43695068,1,1
-4.102673531,-161.8078156,45.05053329,1,1
-7.181777954,-217.6970062,45.83774948,1,1
-6.808922768,-206.5666962,44.09562302,1,1
-3.264372826,-160.9680634,44.71212769,1,3
-17.31422234,-184.0186157,44.81023788,1,1
2.817342043,-95.19270325,45.01794434,1,1
-16.10071373,-166.5453491,44.1446228,1,1
5.144106865,-99.12545776,45.67978668,1,1
-6.896818161,-206.3821716,44.8637352,1,1
-5.113873959,-172.7492218,43.84923553,1,1
-16.40716934,-160.6817322,43.82183456,1,5
-18.37727547,-192.548111,45.7011261,1,1
-16.25188255,-168.2327728,45.88105392,1,1
-16.94599915,-175.120163,44.28495407,1,1
1.11127305,-106.797905,42.85063934,1,5
-5.607553005,-194.1988831,45.69620895,1,4
-3.607747078,-150.6207581,45.23733139,1,1
-12.22091007,-104.637825,43.10112762,1,1
-5.457042217,-181.2902069,43.55292892,1,1
-5.332244873,-181.7813416,44.44040298,1,1
-17.13999939,-184.691864,43.5831337,1,1
-18.16821861,-197.7463989,45.51026917,1,1
-3.241559982,-149.346817,45.43770599,1,1
-3.737561226,-153.8842163,45.82520294,1,3
-20.20632744,-216.7482147,44.00324631,1,1
-14.42284107,-141.6977997,45.18100739,1,1
4.364183903,-84.24797821,43.40760803,1,1
-16.1762085,-164.0932922,44.80537415,1,1
-11.10327244,-84.47425079,43.68975449,1,1
-0.500937939,-167.236557,45.64341354,1,1
-16.70823669,-173.9036713,44.5634613,1,1
-15.12003803,-147.5041962,43.65201569,1,1
-17.04857063,-178.4299774,43.33534241,1,1
-18.83675575,-205.5090485,45.83371735,1,1
-3.539557457,-161.7031097,44.70824432,1,1
-16.96901894,-171.4886169,45.19779587,1,3
-16.31135941,-170.364624,43.35990906,1,1
-19.14928246,-211.1618195,45.91453552,1,1
2.655122995,-100.3876343,44.10608292,1,1
-7.115230083,-211.9830933,45.14482498,1,1
-15.62784672,-159.6168365,43.17119217,1,1
-16.25474167,-163.6380005,44.97513199,1,1
0.854111195,-108.6439209,43.94983292,1,1
-2.720909119,-137.147171,43.82707977,1,1
4.655743122,-82.08404541,45.76880264,1,1
-17.2822361,-179.9794312,45.36003494,1,1
-7.000960827,-208.9118195,44.10431671,1,4
-16.99724007,-171.7337036,45.14809036,1,1
-12.60516834,-109.3791962,45.75143051,1,1
-16.89964867,-174.9749908,45.0242424,1,1
-11.19035816,-87.84963989,45.47454453,1,1
-3.605524063,-162.8319092,45.08752823,1,1
-0.36897707,-116.7609177,43.91477585,1,1
-7.15358305,-211.2628937,44.7218132,1,1
-15.26714802,-149.7562408,44.80886841,1,1
-3.543272018,-152.3117676,44.56521225,1,1
-11.94596195,-90.19703674,45.18313217,1,1
4.56030798,-106.8957214,45.72760773,1,3
-11.93791294,-100.0052414,44.94428253,1,1
-15.98974705,-133.3691864,43.61709213,1,4
-11.01648235,-84.99594879,45.40400314,1,1
-5.999080181,-183.8930054,43.60390472,1,1
-12.55286503,-95.73682404,43.16918945,1,1
-5.102156162,-174.8927917,45.05335999,1,1
-14.55212498,-142.8075409,44.8720665,1,1
-12.26017094,-104.5410385,45.67145157,1,1
-12.58198643,-97.96038818,42.70716095,1,1
-17.17894936,-178.5055542,45.49468231,1,1
-6.595098972,-201.8322754,44.56594467,1,1
-17.71634293,-193.5833893,44.11757278,1,1
-3.598073959,-151.4218597,45.2322464,1,1
-17.72517395,-190.5752106,44.60341644,1,1
-5.037359238,-175.9403076,43.6591301,1,1
-7.023806095,-209.0127869,45.06713486,1,3
-5.720528126,-187.8336182,45.31285858,1,1
1.068644047,-110.4458389,44.06687546,1,1
-6.979616165,-211.7019959,45.80965042,1,1
-15.37432575,-152.6400909,43.60711288,1,1
-11.46944904,-91.22525787,44.38528061,1,1
-12.07448101,-101.6266022,44.72512436,1,1
-16.9473896,-170.9780884,44.63188171,1,1
-10.92438221,-84.97711945,42.91214752,1,1
-16.32420349,-170.3918915,44.67322159,1,1
-4.714412212,-170.7720184,44.69282913,1,1
-18.45302391,-204.2791901,44.68966675,1,1
-3.683037758,-153.3596649,45.70703888,1,1
-17.20458984,-180.130661,43.46786118,1,1
-7.111348152,-209.5481262,45.30437469,1,1
0.18729496,-113.2355576,43.76345444,1,1
0.980808973,-107.253479,43.63982391,1,1
-15.44113064,-157.3556213,43.37920761,1,1
-4.896851063,-173.6991577,44.12675858,1,1
-16.53252029,-173.7952118,43.49659729,1,1
-17.30348969,-186.7672424,44.79315567,1,1
-15.30233479,-151.0124359,44.0406189,1,1
-16.79093933,-177.6815186,45.36592484,1,3
-4.02441597,-159.8803711,44.79956818,1,1
-3.309853554,-146.8093872,44.16078568,1,1
-13.25098133,-118.2185211,43.13619995,1,1
-17.49043083,-189.386261,44.79491425,1,1
-12.03439617,-102.0525055,43.18411255,1,1
-12.5420351,-96.92967224,43.3362236,1,4
-6.973178864,-207.6942749,45.2785759,1,1
-19.62656403,-149.1296844,44.35866165,1,1
-12.09935093,-103.3837051,43.57346344,1,2
-17.06251144,-178.186264,44.15827179,1,1
-6.634963036,-201.7779541,44.50816345,1,1
4.197536945,-87.79412842,44.60825729,1,1
-16.28980446,-167.2249298,44.49286652,1,1
-3.329213142,-152.5684967,45.46277237,1,1
-6.656531811,-202.7238617,44.91081238,1,1
-4.030901909,-160.4220123,44.16670227,1,1
-17.40652466,-185.8837585,44.9819603,1,1
0.657547951,-110.3066101,42.86323929,1,1
-19.19078255,-214.545578,44.78448486,1,1
-0.371686935,-117.4837952,43.56996918,1,5
-17.09160805,-182.7197876,44.79288864,1,1
-16.56547356,-173.7725525,43.66479111,1,1
-16.92050743,-174.7862854,45.50125885,1,1
-15.41404057,-155.5090179,45.61730194,1,1
-5.3842659,-180.2628174,44.91140366,1,1
-5.486382008,-175.4216614,43.79935455,1,1
-17.2799778,-186.7779999,44.98627472,1,1
-4.323987007,-164.3997498,43.73197556,1,1
-20.29718781,-217.7373962,45.74283218,1,1
-15.14971638,-149.4433899,44.51057816,1,1
-7.274930954,-213.3253784,44.58874512,1,1
-21.98543167,-215.2128906,43.90295792,1,5
-5.708493233,-187.5259399,45.36577988,1,1
-2.990860939,-138.7518768,44.46607971,1,1
3.076703072,-96.48071289,43.86304474,1,1
-5.108568192,-181.4537354,45.29453659,1,1
-5.3207798,-181.9694214,44.2185173,1,1
-6.767540932,-206.7250824,45.65048599,1,1
1.402235985,-104.8693237,44.56071472,1,1
-2.775634766,-138.0767212,45.79793549,1,1
0.161667824,-113.8111801,45.24056244,1,5
-2.568248749,-134.5773621,43.88670731,1,1
-16.47560692,-173.2899017,43.24727631,1,1
-3.880379677,-158.3847961,44.13068771,1,1
-2.915598869,-140.6259918,43.17801285,1,1
-22.90272522,-225.2610168,45.52902222,1,1
-6.178225994,-199.6268158,44.92280579,1,1
-11.91314411,-85.55797577,44.7330246,1,1
-12.01342869,-101.599762,43.28541946,1,1
-17.93352509,-197.2033997,44.07580566,1,1
-15.63278294,-161.4154358,43.0676384,1,1
-11.86043644,-89.00798798,43.37701416,1,1
-15.35285854,-155.7274323,44.65651703,1,1
-14.34916019,-137.3205872,45.73125458,1,1
-5.565268993,-185.6921692,44.45842743,1,1
-15.69680119,-133.7707367,44.26558685,1,5
-18.32389069,-192.7546539,45.34609222,1,1
-17.41872215,-183.6909332,45.4271698,1,1
-7.175545216,-213.7117767,45.60395432,1,1
-16.17136574,-167.9889221,44.22846985,1,1
-0.432889938,-117.5306015,45.0211525,1,1
-12.96238804,-109.0930023,45.14152908,1,1
-6.517264843,-211.8399658,45.85873413,1,1
-4.414694786,-168.9967804,45.56893921,1,1
-5.116267204,-174.8764038,45.66083145,1,1
-14.40115833,-137.6933899,43.40853882,1,1
-7.300656796,-221.0331116,45.88370895,1,1
-15.22210407,-149.6477814,45.05502319,1,1
-15.69875813,-162.0952301,45.76451874,1,1
-14.6341753,-143.546814,45.02853394,1,1
-5.33386898,-180.1281586,44.84690857,1,1
-15.71737385,-160.8327789,45.37001801,1,1
3.33314395,-93.02461243,45.03118515,1,1
-6.983917236,-207.5230865,45.68897247,1,1
-12.65053654,-110.0058289,44.56755066,1,5
-5.619662762,-189.1233368,44.98361969,1,1
3.384321928,-93.92478943,44.91228485,1,1
-18.65398788,-208.1420746,44.77386093,1,1
-7.464188099,-220.7594757,45.88532257,1,1
-16.69676209,-167.1947021,45.61334991,1,1
1.27796793,-107.0660782,44.95847321,1,1
-15.65581226,-158.626358,43.77725601,1,2
-0.099404812,-116.2087479,43.3109169,1,5
-11.88458157,-100.2394104,43.45988464,1,1
-6.0035429,-193.1061401,45.45250702,1,1
-5.113180161,-177.8423462,44.758564,1,1
-15.5675211,-157.8086548,45.77554321,1,1
-5.060572147,-174.7654419,44.81430435,1,1
-16.59846306,-174.9040222,43.2711525,1,3
-3.771683693,-155.7566223,43.75297546,1,5
-12.9776392,-116.135994,42.71628952,1,1
-21.44143867,-203.8330078,43.68841934,1,1
-15.68104649,-159.8889771,45.32577896,1,1
-11.1375742,-88.48859406,43.92166901,1,1
4.277694225,-85.45490265,44.22615051,1,1
-0.221940041,-116.0717011,44.03284836,1,1
1.441311836,-104.4980392,44.64818192,1,1
-3.794726372,-156.4855652,44.04919815,1,1
-17.11315918,-180.1339569,44.06805801,1,1
2.454207897,-102.4082413,44.32836151,1,1
-16.7916584,-177.3056793,45.36728287,1,1
-16.50133133,-173.1922302,43.27092743,1,1
-5.037755966,-174.8092346,45.82633209,1,1
-12.56087208,-109.3866653,44.2279129,1,1
-15.63939762,-161.0761566,43.45677948,1,1
-17.12965393,-144.1371307,42.67465973,1,5
-17.64175987,-192.4629211,44.40262604,1,1
-17.68131638,-193.825943,45.47621536,1,1
-7.166955948,-214.8048096,44.85601425,1,1
-16.63371849,-174.6678009,43.91058731,1,1
-4.406315804,-168.5910492,45.55023956,1,1
-16.17027855,-168.219986,44.39174652,1,1
-22.50753975,-207.4143982,44.36836624,1,1
-5.07968092,-175.0471497,44.84205246,1,1
-0.225997925,-116.5338821,45.52277374,1,1
-4.363675117,-164.817276,45.15724564,1,1
-13.08396626,-116.0519104,43.38693619,1,1
-20.24461174,-221.9975433,44.79240036,1,1
-11.97633076,-101.3344803,43.02048492,1,1
-11.17634296,-87.42989349,45.5559845,1,1
-18.33764267,-199.0934753,45.92609406,1,1
-4.768002033,-171.9367218,44.33219528,1,1
-5.773974895,-188.2559204,45.36820221,1,3
-3.687767029,-154.359314,43.61225891,1,1
-16.3985405,-81.17884827,44.08789444,1,1
-12.02094364,-101.0847397,44.60523224,1,1
-18.96665192,-213.7911682,43.8155899,1,1
-17.19014168,-184.3556824,44.2940979,1,1
2.822474003,-163.5800171,43.93208694,1,1
0.146105766,-113.7626495,45.41339493,1,1
-16.75190544,-177.3987274,43.88773727,1,1
-14.67196941,-143.8610535,44.9538002,1,5
-15.33409977,-155.8556061,44.33096313,1,1
-14.83225155,-148.9728241,43.38909912,1,1
-15.79188633,-162.7384949,43.04572678,1,2
-18.35440445,-192.6060333,45.88759613,1,1
-16.1398735,-163.8040466,44.35001755,1,1
-19.01909447,-210.4901276,44.20411682,1,5
-5.362600803,-183.4323273,44.20552063,1,4
-16.27435112,-164.5406952,43.58219528,1,1
-18.26098824,-198.8598022,45.70610809,1,5
-16.03899384,-113.8696289,44.57430267,1,1
-4.76565218,-170.7611389,45.09375,1,1
0.975075006,-107.9743423,42.82529449,1,1
-11.71307087,-85.19677734,44.59472275,1,1
0.713986874,-109.4600296,44.93989944,1,1
0.782942772,-112.2674866,44.30749512,1,1
-5.714883804,-192.4978485,45.64447403,1,1
-15.01084423,-149.3407288,43.00004578,1,1
-18.22843742,-190.7880859,45.14938736,1,1
-16.24495506,-169.9454498,43.45778275,1,1
-0.194359779,-116.3234634,45.00483704,1,1
-4.082714081,-160.5316162,43.67069626,1,1
-6.559353828,-202.2746124,44.22301483,1,1
-1.161074162,-161.6472015,44.65250397,1,3
-7.297241211,-212.6688385,45.81594467,1,1
-15.79663181,-162.2884369,44.69618988,1,1
-2.858386993,-138.7256775,45.41065979,1,5
-18.66941071,-203.4889526,45.55332184,1,1
4.677388191,-84.34054565,44.65680313,1,1
-1.475528955,-177.3180389,44.56661224,1,1
-2.836030006,-139.0886993,44.42919922,1,1
0.5841012,-178.5372467,45.26061249,1,1
-4.759237766,-172.0610809,43.98001099,1,1
1.526122093,-103.5965271,42.96727753,1,1
-15.62983799,-159.7937775,44.6826973,1,1
-3.138444901,-148.0292053,45.41646957,1,1
-18.96547508,-212.6094818,45.45478821,1,1
-12.90904522,-113.3675842,45.67109299,1,1
-17.4502697,-189.1083221,45.63095093,1,1
-15.1891489,-153.902298,43.90009689,1,1
-3.272172928,-154.2607574,45.18650055,1,1
0.333534241,-113.0262527,43.15139389,1,1
-18.2021122,-190.4857025,45.54494858,1,1
-11.9931345,-101.0636444,44.25851822,1,1
1.331058025,-105.2044067,44.4217186,1,1
-15.09775639,-152.87854,43.18800354,1,1
0.804299831,-109.047081,45.66341019,1,1
-14.41714573,-142.8907776,43.00014877,1,1
-17.2415638,-184.8999481,45.45288086,1,2
-5.261062145,-184.8751678,43.79172516,1,1
-4.144368172,-166.7744293,45.37700272,1,1
-12.97656727,-115.1256027,44.41049576,1,1
-14.25475597,-138.2495117,45.54653931,1,1
4.059878826,-86.35089874,45.28078842,1,1
-16.54344559,-169.0358887,45.68190384,1,1
-6.06399107,-194.1362305,44.45728302,1,1
-0.278427124,-117.0170746,45.16592789,1,1
-16.93905067,-181.5671997,43.19620514,1,1
1.579216003,-103.4797897,45.8044014,1,1
-4.496332169,-167.4733124,45.97151566,1,1
-16.00064468,-114.5929108,44.28037643,1,1
-3.861862183,-157.9518127,43.83469391,1,1
-2.969311714,-140.389328,45.12484741,1,1
-17.39118385,-188.0685577,44.06056976,1,1
-17.11512375,-178.0126801,45.37937927,1,1
-2.788764,-144.0383759,45.51771927,1,1
0.741159916,-119.8771286,43.95858383,1,1
-12.19369602,-104.3156891,42.79607391,1,1
-6.893395901,-206.3452606,44.33864212,1,1
-17.7606411,-191.0144959,44.81826782,1,1
-5.412525177,-182.8731689,43.9741745,1,1
-17.51975632,-189.2539978,45.56520844,1,1
4.147740841,-85.84970856,44.4613533,1,1
-15.71643925,-110.9741364,43.78141785,1,1
-5.660875797,-232.3800812,45.74874878,1,1
-16.20383835,-163.9851074,45.02138519,1,1
-12.63095951,-109.7627945,44.59775162,1,1
-18.9865799,-213.8888702,45.72197723,1,1
-16.91858482,-180.4130402,45.47997284,1,1
-5.852539063,-190.492981,44.48358917,1,1
-3.785563469,-155.2078094,44.74022675,1,1
-3.439048767,-154.1843719,45.38500214,1,1
-18.78620911,-205.8310699,44.92497635,1,1
-13.00835705,-115.7927246,45.42869949,1,1
-6.179509163,-195.398407,45.65061951,1,1
-15.79962635,-122.1546173,42.87269974,1,1
-16.37696075,-134.0965576,44.37822342,1,1
-3.084674835,-147.8215179,44.41157913,1,1
-17.4390831,-186.3539124,45.12590408,1,1
-16.68421364,-173.0174866,45.63307571,1,1
-4.139890194,-166.0618591,43.81166458,1,1
1.378029823,-115.161293,45.97309494,1,1
-3.661120415,-157.0151062,45.44352722,1,1
-2.639915943,-135.5657196,44.97450638,1,1
-2.92545414,-140.8475952,44.27595901,1,1
-22.02065086,-215.1060638,45.97206879,1,1
-19.09182549,-215.6487579,45.86606979,1,1
-18.32518196,-200.3673553,45.71146393,1,1
-5.828916073,-190.2735748,44.58855057,1,1
-17.15852165,-185.025589,45.2657547,1,1
2.749546051,-98.31588745,45.65035248,1,1
-19.02625084,-210.5767975,45.48969269,1,1
-7.773742199,-221.5595856,45.90032959,1,1
-16.38923836,-172.0052643,43.36993027,1,1
-4.925179005,-174.6417236,43.56689072,1,1
-5.629664898,-191.1107025,45.58754349,1,1
-16.93750763,-175.5304565,45.43011475,1,1
-22.84063149,-221.3787689,45.04393768,1,1
-15.89893055,-79.00090027,43.47402573,1,3
-16.86183739,-169.1135712,45.95109558,1,1
-2.689481735,-136.9203186,43.67213058,1,1
-2.884037972,-145.7446747,44.43683624,1,1
-16.80879402,-177.3445282,45.43623734,1,1
-3.393028259,-147.4221039,43.82192993,1,1
-3.647151947,-159.0915833,45.0526886,1,1
-4.367585182,-164.6746216,45.72248077,1,1
-17.69045258,-194.2586212,43.74021149,1,1
-7.418598175,-219.8658752,45.15007782,1,1
-17.2512188,-182.1292725,45.67631149,1,2
-3.754262924,-155.8373413,43.81897736,1,1
4.060301781,-86.50521088,44.02794266,1,1
-14.79844761,-147.1420136,45.24340439,1,5
-17.78089142,-194.7442627,43.83945084,1,1
-6.986835957,-216.6530762,45.66354752,1,1
-0.138791084,-116.1462784,44.25526047,1,1
-16.66380119,-173.2519684,45.83635712,1,1
-15.46185017,-121.400589,42.67049789,1,1
1.320525169,-108.5636902,44.9223175,1,1
0.353319168,-115.6158066,45.44024658,1,1
-14.4519701,-141.2550812,43.3121109,1,1
-4.662797928,-170.2816315,43.82374573,1,2
-7.758667946,-218.3914642,44.75498581,1,1
-15.57598972,-120.2962952,42.80283737,1,4
-3.104836464,-148.3328552,43.56340027,1,1
-2.852366924,-140.6544342,43.38284683,1,1
-7.379067898,-213.0104065,44.36649704,1,1
-3.823108673,-161.5346527,44.37338638,1,1
1.241070032,-105.6967468,45.88438416,1,1
-15.76170063,-161.7497253,45.23127747,1,1
-17.79271317,-196.22789,44.79389954,1,1
-16.0708046,-166.2523041,43.26619339,1,1
-12.60370541,-109.2560806,45.20830917,1,1
-11.82067204,-86.58132935,43.35803986,1,1
2.711355925,-100.2931824,44.05195618,1,1
-17.51254272,-96.18731689,43.44721603,1,1
-18.98381615,-213.008194,45.54669571,1,1
-12.1181879,-99.03118134,44.91495514,1,1
2.621212006,-96.58513641,43.62442398,1,1
-3.122374535,-143.0375061,43.96828461,1,1
-19.12065506,-215.8494873,45.64218521,1,1
-5.007633209,-175.6585693,45.33607101,1,1
-2.985328674,-146.0516968,44.89131165,1,1
-22.03597832,-203.748764,44.26580811,1,1
-17.32880211,-183.3854523,45.92386246,1,1
-3.939805031,-163.1615753,45.71905899,1,1
0.014805794,-174.5524445,45.54885483,1,1
1.000663042,-110.6383133,44.62314987,1,2
-2.808034897,-136.8373871,45.86607361,1,1
-17.42021942,-185.7889862,44.88307953,1,1
-3.027216911,-142.3618927,45.1223526,1,1
-3.863576889,-162.0431366,44.02157974,1,1
1.270743847,-105.8739014,43.74591446,1,1
-3.155407906,-144.580246,44.34765244,1,1
-17.18894768,-179.2797699,44.09089279,1,1
-19.16545486,-160.91745,44.16745377,1,1
-12.83002567,-107.7708359,44.36112213,1,1
-0.151130199,-167.2288361,44.95044327,1,1
-17.78510284,-194.2628479,44.53104782,1,1
-6.731891155,-204.0688324,45.27827072,1,1
-17.69735718,-136.4815521,44.06978989,1,1
-16.41386414,-82.09793854,43.39605331,1,1
-15.56701756,-160.2085266,43.11622238,1,1
-14.92893314,-149.24823,43.46509171,1,1
-11.88202572,-97.25922394,45.82276917,1,1
-15.77271557,-161.1405182,45.34713364,1,1
-20.2760601,-216.822403,45.6966095,1,1
-16.66823006,-172.9725189,44.99026489,1,1
-2.894716263,-144.2745819,45.54703522,1,3
-17.15191078,-178.3486633,45.59548569,1,1
-17.9410038,-197.5440674,44.54531097,1,1
-6.802102089,-205.6582794,44.21268463,1,1
-17.47068024,-189.8647461,45.49867249,1,1
-11.24717426,-87.41059875,44.90445709,1,1
-17.13816071,-179.1322784,45.1512413,1,1
-15.64096165,-157.6745453,45.16444778,1,1
-14.61949825,-145.7798615,43.66210556,1,1
-4.965647221,-174.5082092,45.10071182,1,1
-15.88362217,-162.6366272,44.11761475,1,1
-7.20072794,-219.0377808,45.59246826,1,5
-7.048317909,-208.542923,44.89564133,1,1
-3.797781944,-161.1349182,45.08300018,1,1
1.213448048,-106.0865173,43.01791763,1,2
2.469492912,-102.0739975,43.97716522,1,1
-15.3939867,-121.3054504,44.2000351,1,1
-18.70287514,-208.5791779,44.80787659,1,2
-2.994389057,-146.0443268,44.87705231,1,1
-4.395979881,-168.415741,44.53944778,1,1
-3.546961784,-156.4712219,44.79421616,1,1
-4.702819824,-171.2644959,45.2256546,1,1
-16.9873085,-137.8926544,43.90237045,1,1
-4.925672054,-174.9656982,44.14309692,1,1
-17.00968552,-182.3503723,44.69287109,1,1
-3.785862923,-155.7717743,44.29359055,1,1
-5.412744045,-179.2711792,43.69156265,1,1
3.028117895,-94.19434357,44.74052048,1,1
-18.65382957,-204.7081909,44.52519608,1,3
-3.93251133,-159.6929626,44.14276123,1,1
-18.19886971,-199.0622253,44.38009644,1,1
-5.345138073,-180.5751801,45.2759819,1,1
-2.765842915,-138.4032135,45.89312744,1,1
-3.715625763,-154.9940948,43.9649086,1,1
-17.6242218,-156.7035828,44.35800171,1,1
-3.061766624,-147.8129272,44.69746399,1,1
-12.12330723,-99.15198517,45.01502991,1,1
-15.61006641,-160.1177826,43.25927353,1,1
-12.13824177,-104.0070267,42.79402161,1,4
-2.685894966,-136.0368042,45.95649338,1,1
-6.952775955,-208.7427216,44.4859848,1,1
-13.21215916,-94.04322052,42.86899185,1,1
-7.068787098,-209.1739197,44.82473373,1,1
-16.88281441,-175.3964081,44.94921112,1,1
-12.04580402,-101.3829956,44.85788345,1,2
-16.93484688,-176.4954224,44.0049324,1,1
0.199516773,-113.4158707,45.19193268,1,1
-11.2203989,-90.55047607,44.16145706,1,3
-3.127529144,-143.1964264,45.91769028,1,1
-6.329651833,-201.311203,44.20677948,1,1
-6.338365078,-201.3739319,45.3017807,1,1
-18.33615875,-201.6524811,45.80461121,1,1
-20.2072773,-217.0696106,44.30482483,1,1
-15.27098942,-151.3622437,45.82762527,1,5
-18.1489296,-201.0322876,45.45969772,1,1
-6.814108849,-205.6383972,44.86948013,1,1
-15.95632458,-96.47418976,44.10883331,1,1
0.187667847,-113.9099655,45.91423798,1,1
-2.641354084,-134.5532227,45.56930542,1,1
-15.86604023,-114.8956375,43.10441589,1,1
-15.57071781,-151.808197,44.52615738,1,1
-5.453175068,-183.0956573,45.27994919,1,1
-22.80865479,-182.6582489,45.35346603,1,1
-4.394888878,-168.8298035,44.56748581,1,1
-5.40577507,-183.3123779,43.77900314,1,1
-12.58522129,-109.9019699,44.6102562,1,1
-16.0067482,-141.7029724,43.71299362,1,1
-2.926548004,-141.1344147,44.09918976,1,1
-15.39753819,-155.3374176,45.6713829,1,1
-5.280249119,-184.8525696,45.55168533,1,1
-18.1750164,-198.4638214,43.82433319,1,1
-4.545119762,-168.0027771,44.31530762,1,1
-5.924194813,-190.3601379,45.39462662,1,3
-3.974867821,-160.1288147,45.17242813,1,1
-2.923604965,-139.2409363,45.5694313,1,1
-5.772605896,-197.1555786,45.91557312,1,1
-3.170702934,-148.7700043,45.58137894,1,1
-1.933463097,-133.2715912,45.0860405,1,1
-15.58721256,-159.0157318,45.97053146,1,1
-17.25439644,-186.5852203,43.60087204,1,1
-17.12144089,-183.4985504,43.41282272,1,1
-14.7959795,-147.5442505,45.6111145,1,1
-2.979399681,-142.2884216,44.95316315,1,1
-2.913301945,-140.6360016,45.41936874,1,1
-14.59338093,-142.0031281,45.29722977,1,1
0.556250095,-176.3505402,45.6892128,1,1
-3.137332916,-148.1081238,44.16025925,1,1
-6.688882828,-204.0379028,44.17057037,1,1
-16.90440941,-169.384613,44.70182037,1,1
-25.38923264,-223.0692749,45.40481567,1,1
-7.159808159,-215.0307312,44.2652626,1,1
-12.53466129,-109.5285568,43.9601326,1,1
-4.890635014,-172.9158325,45.50514603,1,1
-15.12825489,-149.2262573,45.168396,1,1
-18.87421989,-207.4274139,45.67873383,1,1
-22.70557022,-224.9525757,45.52885818,1,1
-15.88680363,-112.091156,43.90670776,1,1
-0.048251152,-115.6090393,43.32215118,1,1
-14.65040302,-145.8418884,44.98286438,1,1
-4.1513834,-161.7140961,45.49003601,1,1
-5.26354599,-179.3603668,44.63588715,1,1
4.665764809,-84.58615112,45.17904282,1,1
0.812642097,-111.0786591,44.50647354,1,1
5.021485806,-112.5660629,45.85977173,1,1
-19.07475281,-210.240448,44.79070663,1,1
-2.60063076,-135.1808167,45.45861053,1,1
-16.29046059,-163.9190369,45.87470245,1,1
-14.83077908,-147.915863,45.45647812,1,1
-3.125130653,-147.9853363,43.67517471,1,1
-14.20135975,-137.7841644,44.84331512,1,1
1.154017925,-106.7312317,43.07085419,1,1
-18.66141129,-208.3075256,45.08039856,1,1
-16.43379974,-172.1658173,43.58093262,1,1
-17.54520798,-191.3217621,44.57064438,1,1
-13.27736759,-118.7517242,45.5398407,1,5
-15.736619,-110.983696,45.16921616,1,1
-15.37351322,-152.449707,45.73594666,1,1
-2.867441177,-140.2159424,45.78633499,1,1
-7.157097816,-214.3101959,45.19685364,1,1
1.40750885,-104.9546356,45.39359665,1,1
-13.07077885,-115.868515,44.70761108,1,1
-15.14834118,-147.4427032,43.5299263,1,1
-2.093985081,-133.3349457,43.98875809,1,1
-12.44184208,-96.34922791,42.9453125,1,1
-4.762904167,-171.1848755,43.78614044,1,1
-17.12927437,-179.1176453,43.76330948,1,5
-17.65423584,-193.8835907,45.58291245,1,1
-4.83942318,-172.1802826,45.94145584,1,1
-11.73265743,-94.9811554,45.39142609,1,1
-17.94788361,-197.8026428,45.79398727,1,1
-2.62110424,-139.752655,44.95875931,1,5
-14.57275677,-143.0072632,44.48543549,1,3
-0.406104088,-117.6117706,43.6086998,1,1
-2.939330101,-138.9700165,45.18113327,1,1
-12.022439,-90.95694733,44.9288559,1,1
-10.96247482,-84.02861023,42.74596405,1,1
-12.97551823,-110.9420547,43.21577072,1,1
-14.46791172,-142.719162,43.7085762,1,1
-4.675525188,-170.1535187,45.93294907,1,1
-4.035099983,-160.1695709,45.42837906,1,1
-2.616106987,-134.5215912,45.36362839,1,1
-13.65731144,-116.3694153,43.32226944,1,1
-12.32692432,-105.3381729,45.46409988,1,1
-17.89785576,-196.6976013,44.16501236,1,2
-17.92719841,-197.5972443,44.34458923,1,1
-7.587286949,-220.9326477,45.35388947,1,1
-5.906472206,-190.3858185,45.07920837,1,1
-2.31379509,-177.0566711,45.43875504,1,1
-3.240822792,-149.6740265,43.90409088,1,1
-4.988481998,-187.3196411,45.65410233,1,1
1.723956108,-103.4367142,43.28203583,1,1
-5.119588852,-179.599823,44.77680969,1,1
3.060122967,-120.947403,45.58140564,1,1
-7.485580921,-220.3850403,45.30844498,1,1
-3.220181465,-151.9691772,44.68897247,1,1
-16.70484543,-143.6760864,44.13031769,1,1
-0.293778896,-116.7446442,44.48245621,1,1
-7.141170979,-214.1616669,44.31776047,1,1
-12.0483408,-101.5908279,45.6260643,1,1
-3.340624809,-146.7767029,45.23763275,1,1
-7.115227222,-214.3272705,44.59121704,1,1
-16.55343819,-174.4847107,44.97697449,1,1
-17.52825356,-191.5624542,43.36893082,1,1
-15.71576595,-162.0381165,45.15133286,1,1
-16.30441666,-80.97150421,44.50839996,1,5
-19.41750336,-140.603241,43.90969467,1,1
-0.233473778,-116.5672684,45.58240509,1,1
-3.937269211,-163.1030121,45.40806198,1,1
-2.987524033,-140.5408783,45.36938477,1,1
-5.284051895,-184.5004425,45.21778488,1,1
-17.72483826,-158.4131775,44.2634697,1,1
-15.14550114,-148.4356232,43.72764206,1,1
-5.179077148,-181.9822693,45.3727684,1,1
-5.449567795,-182.3979187,45.01329422,1,5
-4.451723099,-164.8795013,44.62857056,1,1
-14.75219822,-148.0595703,43.24621201,1,1
-17.22779655,-179.3374939,45.70814896,1,1
-2.70908165,-137.8475342,43.59142685,1,1
-17.62509918,-95.07653809,43.0042572,1,1
0.30313921,-112.8471603,43.4418602,1,1
-16.75837326,-177.7095032,43.46120834,1,1
-6.610067844,-203.2799377,45.40056992,1,1
-3.934453964,-158.5277557,44.31794739,1,1
-4.474123001,-164.8836517,45.82746506,1,1
-4.33825016,-168.7968445,44.9190712,1,1
-2.873651981,-140.8789368,43.75055695,1,1
9.952748299,-90.44328308,44.55904388,1,1
-3.958546638,-159.402298,43.56851959,1,1
-18.21213341,-198.4529419,45.38196945,1,1
4.316520214,-87.44763947,44.5593338,1,1
-15.7195673,-161.5043945,45.51922989,1,1
-4.206945896,-167.0600739,43.8626976,1,1
-3.231049538,-150.0340729,45.19352722,1,1
2.716422081,-100.0464249,44.38264465,1,1
-5.581081867,-185.6645508,45.18983078,1,1
-7.382939816,-212.851593,45.20093536,1,1
-15.52851772,-120.3610382,43.54972076,1,1
-16.31928635,-167.4328613,44.60152817,1,1
-16.29873848,-170.3839111,43.33474731,1,2
-2.73684907,-182.6747131,44.84678268,1,1
-14.63177204,-140.9890137,43.46979141,1,1
-6.261960983,-200.005127,44.57004166,1,1
3.535727024,-92.65277863,45.96077728,1,1
0.297357082,-115.7221222,44.62724686,1,1
-18.27643013,-201.5848999,45.16622543,1,1
-17.65712357,-193.1046295,44.53337479,1,1
-0.076876163,-115.1852417,43.89330292,1,1
-11.09683323,-84.41027069,42.92459106,1,1
-17.7946434,-157.8779755,44.74649048,1,1
-16.34465027,-164.7061615,45.38116074,1,1
3.006817102,-93.8912735,43.77903748,1,1
-14.21004009,-138.2496948,43.97389603,1,1
-15.30596066,-155.601593,43.77224731,1,1
-16.53071404,-172.6741333,45.97825623,1,1
-3.148118973,-144.5389404,45.64111328,1,1
-7.799547195,-219.6623993,44.42422867,1,1
-2.651346207,-137.5870361,44.01383209,1,1
-5.596138954,-191.0048218,43.87735748,1,1
-14.64690495,-136.7752228,43.67993164,1,1
0.104955196,-113.7885437,45.36716461,1,1
-16.26774216,-170.0875092,44.73744965,1,4
-15.0461092,-140.358017,43.80164719,1,1
-4.866368771,-172.019104,45.37940216,1,1
-6.581606865,-203.1995544,45.43845749,1,1
-16.97717094,-180.2641754,45.43304443,1,1
1.110899925,-106.2653275,45.94341278,1,1
-16.28344727,-165.0895386,45.90546036,1,1
3.764579058,-133.3040466,44.11923981,1,1
-17.00854874,-180.5665741,44.83652115,1,1
-4.773184776,-171.8297577,45.72465515,1,1
0.438136101,-111.8979492,43.37146759,1,1
-3.313625336,-146.7392883,44.04749298,1,1
3.160404921,-96.1758194,44.09693527,1,1
-15.05657482,-139.8002167,43.66786957,1,1
-19.18872833,-211.6148376,45.48095703,1,1
-11.99673557,-101.4832611,44.48360825,1,1
-2.950222969,-145.0608826,45.18161392,1,1
-19.14304924,-211.2704468,45.48150635,1,1
-5.002564907,-174.5189056,45.33288956,1,1
-11.87497044,-99.89898682,43.76075363,1,1
-5.697527885,-232.6589355,44.50183105,1,1
4.600553989,-84.94781494,45.12799835,1,1
-15.97016239,-97.04439545,42.29677963,1,1
-6.073038101,-194.7822266,45.20407867,1,1
-14.49711895,-139.8899841,45.69636917,1,1
-11.70577717,-96.05334473,42.3250885,1,1
-17.11332512,-183.5626678,43.67224884,1,1
-3.682486534,-159.3511658,44.99679947,1,1
-15.42459202,-158.9310455,43.09855652,1,1
-6.822113991,-208.6192322,45.9193573,1,1
-5.54069519,-186.6718292,45.01033401,1,1
-5.134991169,-178.0343323,45.06972885,1,1
4.573009968,-82.72050476,43.10452271,1,2
-15.46086979,-150.3600922,44.1267662,1,3
-15.66203403,-162.1579742,43.93275833,1,1
-0.036861897,-119.3975601,44.58770752,1,1
-0.361722946,-117.5374832,45.45962143,1,1
-17.97536278,-197.9548492,45.88248444,1,1
-2.712357998,-136.1060944,45.2442131,1,2
-3.616214752,-156.5491333,45.69712448,1,1
-18.25029373,-119.3812637,42.68803787,1,1
2.455383062,-102.0358887,43.68749237,1,1
1.313575983,-105.4647293,45.36214066,1,1
-16.94750595,-175.3413544,44.7375679,1,1
-17.00333214,-182.1120453,45.3263092,1,1
-15.15304279,-147.8556213,43.91033936,1,2
-4.704724789,-181.9328613,44.57524109,1,1
-3.08599472,-143.0412903,45.87828445,1,1
-17.82355309,-195.4292908,45.06354523,1,1
-11.78044224,-87.95362091,43.891819,1,1
-11.88909054,-99.97051239,44.00180435,1,5
-12.07426548,-101.7069855,45.7371254,1,1
3.526184082,-90.02605438,45.63872528,1,1
-17.6836071,-193.7809448,45.36965179,1,1
-11.14498043,-87.67378998,45.86105728,1,1
-19.03378677,-210.2795563,43.93835068,1,1
-18.93527985,-212.9697876,44.61193848,1,1
-7.214383125,-214.9022827,45.93581009,1,1
-18.30669594,-199.9726105,45.82684708,1,1
-11.60110188,-84.81669617,43.62330627,1,1
-18.94516754,-142.6744232,44.09343338,1,1
-6.731960773,-204.6741943,45.20764542,1,2
-14.60405445,-143.5093384,44.46969986,1,1
-14.30269718,-140.7126007,43.40136719,1,1
-15.89402103,-111.4187469,45.04592514,1,1
-3.68288517,-153.7158813,44.94643402,1,1
1.408902168,-104.8955002,43.49013519,1,1
-18.91615868,-212.8509979,45.10622025,1,1
-13.12059498,-117.4460602,42.75457001,1,1
-19.04958725,-160.592392,43.26278687,1,1
-17.17290306,-178.3087158,45.07811356,1,2
-14.28629398,-138.8391418,44.08162308,1,1
-19.07280159,-210.5265656,44.76615143,1,1
-3.93231678,-160.9394989,44.51332092,1,1
-6.946315765,-207.744751,44.45734787,1,1
-6.589176178,-206.2252502,45.68362427,1,1
-14.43836308,-139.0125122,45.69285202,1,1
-15.20201206,-151.0308228,45.91753387,1,1
-21.99433708,-215.1309204,44.14505005,1,1
-14.8705759,-148.6914673,44.522789,1,1
4.16518116,-87.49773407,44.87175369,1,1
4.333565235,-115.104126,44.48358917,1,1
-6.177118778,-194.8328247,45.39839935,1,1
-12.5934763,-109.8472824,42.88940811,1,1
4.131797791,-89.10005951,44.1313324,1,1
-18.1630764,-199.5756989,44.17550278,1,1
-17.94659233,-197.8763123,43.9654007,1,1
2.588881969,-97.26246643,43.28598785,1,1
-19.50101852,-142.0648651,44.39081955,1,1
-17.15833664,-178.8065033,43.13788605,1,1
-5.354219913,-180.5655365,45.6988945,1,1
-13.37996769,-117.4747849,43.14491653,1,1
-15.97444057,-78.65461731,43.54668045,1,1
-15.33660221,-153.7597046,45.70158386,1,1
-21.81491089,-216.0681915,45.8249054,1,1
-15.57438946,-152.0217743,44.401577,1,1
-12.2269907,-103.6483688,44.93046188,1,1
-4.300633907,-165.6377869,44.04212952,1,1
-5.20420599,-183.718399,44.70555878,1,4
-14.84263706,-148.2797546,45.82271957,1,1
-16.12524223,-167.8457031,43.24636459,1,1
-16.53850174,-82.93798065,45.05653,1,1
-15.99086857,-114.6760941,44.17336273,1,1
-12.23173618,-103.7198105,44.39377975,1,1
-7.359591007,-220.4382324,45.44837952,1,5
-15.6430521,-151.9077606,44.38440704,1,1
-19.01264191,-213.635376,45.89923477,1,5
-7.242019176,-213.191925,45.24422455,1,1
-16.91544151,-181.3910065,43.03606415,1,5
-17.71575928,-193.991745,45.31001282,1,1
1.24199605,-106.1918182,44.40179443,1,1
-17.31390953,-187.7780609,43.57751465,1,1
2.313622952,-102.5653763,45.33480072,1,1
-4.031611443,-161.4878845,43.57149124,1,1
-6.284939766,-214.8264923,45.32730484,1,1
-11.44344425,-87.12418365,43.87077713,1,1
-12.18151569,-103.3306656,43.31007385,1,1
-12.07241726,-102.2036362,45.0120163,1,1
0.455307007,-112.2532501,45.92017746,1,1
-14.48833179,-140.4738007,45.89871979,1,4
-18.24642372,-200.7362213,44.1889801,1,1
-16.4139061,-172.098938,43.50581741,1,1
-7.14625597,-211.1358337,45.01306534,1,1
-7.318208218,-220.1424103,45.92425919,1,1
-11.98446751,-101.8248444,43.02177811,1,1
1.783715963,-102.9552231,45.70513916,1,1
-12.79964924,-112.8490143,45.72423553,1,1
4.832071781,-106.5775909,45.53957367,1,1
-16.0272007,-165.7804413,43.16122055,1,1
-1.096192837,-161.6036682,45.35298157,1,1
1.167608023,-106.2342529,45.56868362,1,1
-15.0882082,-152.7485352,42.8982811,1,1
-5.569441795,-184.9888153,44.71709442,1,1
-13.01528263,-119.1492004,42.55761719,1,1
-17.36388206,-188.1919403,43.58653259,1,1
-13.28098392,-80.95262909,45.61851501,1,1
-7.03158617,-217.3833618,45.1927681,1,1
0.788190842,-111.5768204,44.44119263,1,1
-15.29580402,-153.1008301,45.85774994,1,1
-17.73794365,-193.5746765,44.29949188,1,1
-7.145503044,-211.0361633,44.24611664,1,1
-10.93369102,-85.09101105,42.8576355,1,1
-2.717097282,-137.8878632,43.5055542,1,1
-17.88995743,-197.5811005,43.69820023,1,1
-18.26713562,-200.0266113,43.84965515,1,1
5.291872025,-79.91745758,43.84737015,1,1
-4.480124474,-164.9037018,45.83148193,1,1
-3.038269043,-142.9163971,45.23729324,1,2
-18.97815514,-214.0548401,45.1527977,1,1
-12.87692738,-113.8173523,42.85962296,1,1
-7.520069122,-218.8416748,45.02902985,1,1
-6.666169167,-208.7397614,45.29748154,1,1
0.223577976,-115.211853,44.56733322,1,1
3.653949022,-89.85452271,44.61690903,1,1
-18.18514252,-198.4520416,43.64005661,1,1
-14.71168995,-144.3193665,45.80778122,1,5
-5.510951996,-184.9555511,44.05570984,1,1
-17.61405563,-145.8626862,43.98176193,1,1
-6.170399189,-193.2620239,45.25860977,1,1
-16.47843742,-172.7976685,43.26322556,1,1
-2.874080658,-145.5193787,44.55880356,1,1
-17.08881569,-178.491272,44.29687881,1,1
3.457133055,-93.40684509,45.86830139,1,1
-7.418732166,-215.9629974,45.71211624,1,1
2.785540104,-95.23750305,43.53373718,1,1
-2.674743652,-135.6794281,45.44849777,1,1
-3.279481888,-149.8045654,45.6280098,1,1
-17.32516289,-187.486969,44.77494812,1,1
-5.654232025,-191.2539368,44.15604019,1,1
-11.02316761,-83.92769623,45.03927612,1,1
-17.19129944,-181.1109009,45.63592529,1,1
-17.08747864,-182.004776,45.40225983,1,1
-16.54848862,-171.0987244,45.20232391,1,1
-17.80335808,-194.8759003,44.90356445,1,1
-16.57336235,-174.3426361,45.31515121,1,1
-1.890831947,-133.3062744,44.47933197,1,1
-19.46290207,-221.3327637,45.94309616,1,1
-4.923257828,-173.9464569,44.38291931,1,1
-6.703052998,-203.9659576,45.48434067,1,1
-11.00108337,-84.85648346,45.78733444,1,1
-4.769382954,-170.7676697,45.25364304,1,1
-11.10467052,-88.52466583,43.77073669,1,1
0.809568882,-109.1804199,44.79826736,1,1
-6.167841911,-199.4138947,44.72757721,1,1
-17.4358654,-188.8224335,45.04244995,1,1
-12.54918003,-97.18895721,44.31990433,1,1
-5.211391926,-183.5827789,45.18435669,1,1
-4.681234837,-170.9831696,45.92936325,1,1
-17.38986015,-189.0129395,44.82661819,1,1
-0.080392838,-115.1882401,43.54881287,1,1
0.81483078,-109.2597122,43.96508789,1,2
-22.01468468,-215.2832794,45.61192703,1,3
-18.33537865,-200.2884827,45.92034531,1,1
-12.99686527,-115.7921677,42.95042038,1,1
-18.32396317,-200.2563477,44.90683746,1,1
-4.083028793,-161.9099731,44.9160614,1,1
2.745429039,-100.1395798,44.3789711,1,2
-2.60378933,-134.3625641,44.5913887,1,1
-2.524124146,-133.8365173,44.34209442,1,1
-3.167160034,-148.6222534,45.18143463,1,1
-18.41838074,-204.49617,45.9757576,1,1
-12.16795826,-103.1621475,45.42742157,1,1
-21.87150383,-211.4814911,44.79221344,1,3
-16.34952354,-168.7494202,45.39151382,1,1
-16.42047691,-168.6007385,44.81503296,1,1
4.708047867,-81.19256592,45.7387886,1,1
-3.165611267,-144.3671112,45.34753418,1,1
-10.99001598,-83.81838989,45.33568573,1,1
3.501600027,-93.53429413,44.66473389,1,1
-18.8769207,-212.0658112,45.49494934,1,1
-5.093588829,-177.9335938,44.01888657,1,1
-7.369627953,-220.5215302,45.38365936,1,3
-13.11137676,-115.9694824,44.91513062,1,1
-18.20642281,-201.6150665,43.87075806,1,1
-17.87175941,-197.4264984,43.73587418,1,1
-12.02936459,-101.9191666,44.00557709,1,1
-5.205092907,-183.7097626,44.68948364,1,1
-5.533484936,-187.0898132,45.45468903,1,1
3.518724918,-90.5845871,44.03869247,1,1
-11.55687428,-90.77687836,44.26747894,1,1
-12.21183491,-103.7853241,43.91742325,1,1
-5.796631813,-189.5316772,44.37078094,1,1
-2.694867134,-142.1486816,45.95749283,1,1
-15.89866734,-133.4116211,44.27690506,1,1
-18.46357918,-197.0710144,45.8979454,1,1
-25.53756714,-222.365387,45.47378922,1,1
-16.15067291,-80.77257538,43.06358337,1,1
-5.933924198,-189.9219055,45.78242493,1,1
-5.582883835,-194.0589905,45.85083389,1,1
-2.69442606,-142.2805786,44.47799301,1,1
1.492516041,-103.8907089,44.68801117,1,1
-17.25789261,-180.2937469,44.12533569,1,1
-16.58712959,-174.5603333,44.20044708,1,1
-17.48504066,-189.2410431,45.22829056,1,1
-15.36147404,-151.6367645,45.98106384,1,1
2.451098919,-101.700386,44.85268784,1,3
3.979057074,-86.94042206,43.45696259,1,1
-6.295286179,-200.3339996,44.26673126,1,1
-13.00685596,-115.1173935,45.54821777,1,1
-4.55365181,-167.8489838,44.95176697,1,1
-15.42138195,-152.6674957,45.13507462,1,1
2.29833889,-99.1484375,44.32474899,1,1
-18.54175568,-197.2265625,45.44122696,1,1
-18.29759407,-194.7097473,45.06758118,1,1
-5.216533184,-179.5121002,43.52358246,1,1
5.199615002,-79.72550964,44.21447372,1,1
-15.42586613,-158.9187622,43.48604202,1,1
-11.30843067,-83.05551147,43.30318832,1,1
3.10904789,-96.36715698,44.57995224,1,1
-16.47336769,-172.8584595,44.92874146,1,1
-3.251389503,-149.2882843,44.40180969,1,1
-15.36964893,-155.8839417,44.94005585,1,1
-5.306935787,-181.084137,44.08577728,1,1
-17.57734871,-188.604538,45.20001984,1,4
-6.538354874,-201.5111847,45.97705078,1,1
-18.25171661,-199.9553528,43.98498917,1,1
-11.00508022,-85.11141968,45.23843384,1,3
-3.608538628,-151.4400482,45.14970016,1,1
-21.98007584,-216.2556915,45.0087738,1,1
-15.76299381,-161.8105621,44.14426041,1,1
1.565582037,-103.3415146,43.9536972,1,5
-15.67632771,-133.7794342,45.45914078,1,1
4.094517231,-86.52133179,44.58420181,1,1
-17.53406525,-191.0937195,44.20555115,1,1
-3.267569542,-146.7659454,44.5966568,1,1
-5.544062138,-187.2098999,45.52031326,1,1
-18.39024353,-200.3673401,45.49269104,1,5
-7.193480015,-211.9555969,44.77979279,1,1
-11.98491383,-91.0785675,43.01640701,1,1
-11.83559513,-96.89626312,45.46100235,1,1
-8.608078957,-233.786026,45.7325058,1,1
-11.86815739,-85.56465149,43.40950394,1,1
-5.505875111,-186.415863,45.30322647,1,1
-17.47453308,-189.5990295,44.4733963,1,1
-5.174850941,-183.9117889,43.74649811,1,2
0.378087997,-112.409874,44.69189072,1,1
-7.017663002,-211.8160095,45.3882103,1,1
-15.45824718,-150.964447,43.22077179,1,1
-5.953083992,-190.3510284,45.85713196,1,1
-5.318809986,-178.6121368,43.76328659,1,1
-17.18586349,-185.1999817,44.14777756,1,1
-4.989463806,-175.5132294,45.79048538,1,1
1.329483986,-108.1013031,45.2949295,1,2
-12.20727062,-94.84082794,43.71108627,1,3
-2.654237747,-141.8477936,44.06523895,1,3
3.830005884,-89.54798126,43.82366562,1,1
-14.77421665,-134.7211304,45.38464355,1,1
-16.91689682,-180.3563538,43.92728424,1,1
-17.16058731,-181.3707733,44.45823288,1,5
0.333454132,-112.8134384,43.35860825,1,1
-17.2597332,-186.5353088,45.46474457,1,1
0.284846783,-112.4820404,43.77827454,1,1
-5.688255787,-232.4764099,45.05918884,1,1
5.256373882,-80.12873077,45.62485504,1,1
-6.284778118,-200.0902863,44.4977417,1,4
